ply
format ascii 1.0
comment VCGLIB generated
element vertex 1662
property float x
property float y
property float z
element face 0
property list uchar int vertex_indices
end_header
0.0201693 -0.0120002 0.026 
0.0755983 -0.022 0.020201 
-0.104699 -0.0115955 0.026 
0.0711563 0.022 0.0200767 
0.0678743 0.0193645 0.026 
-0.0849542 -0.00760804 -0.026 
0.0374867 0.0101953 -0.026 
-0.116 -0.0202315 0.00383582 
-0.0441145 -0.00389107 -0.026 
0.0916872 -0.0192988 0.026 
-0.0504286 -0.0115725 -0.026 
-0.116 0.00875225 0.00998564 
0.0684757 -0.022 -0.0237002 
0.000840716 -0.022 -0.00898402 
-0.113914 0.0100539 -0.026 
0.104624 0.0172865 0.026 
0.0382345 -0.022 -0.00553246 
0.116 -0.0168856 0.0175116 
-0.0751899 0.0153528 0.026 
0.0230014 -0.00355458 0.026 
0.0566907 0.0118793 0.026 
0.0576534 -0.022 -0.0212156 
0.00706444 -0.019302 0.026 
0.0985643 -0.0190187 -0.026 
0.07913 0.0186874 0.026 
0.0799951 0.0115497 -0.026 
0.106438 -0.022 0.0114706 
0.00267378 -0.022 0.00677385 
0.0486446 -0.022 -0.0056378 
-0.116 -0.014516 -0.0018895 
-0.0810407 0.022 -0.00277645 
-0.116 -0.0211332 0.0199764 
-0.0792983 0.0131349 -0.026 
0.017373 -0.022 -8.87839e-05 
0.0327829 0.022 0.0139162 
-0.116 -0.012276 0.0213563 
-0.0980866 0.021365 0.026 
-0.0365298 0.0106385 0.026 
0.116 0.005173 0.00361806 
-0.0045777 -0.00796983 0.026 
-0.0423335 0.022 -0.00500254 
-0.10761 -0.0112559 -0.026 
0.0941659 0.022 0.0142838 
-0.0561281 0.0112091 0.026 
-0.115832 -0.0117457 -0.026 
0.0757202 0.022 -0.0167204 
0.0842923 0.022 -0.0151108 
-0.0934395 -0.022 0.0147713 
-0.0210739 0.022 -0.00735592 
-0.016808 0.0177246 -0.026 
-0.0713437 -0.0105051 -0.026 
0.0415766 -0.022 -0.0123629 
-0.07507 0.022 0.020325 
0.0211658 0.0151942 -0.026 
0.116 0.00845559 0.0126879 
0.0307649 0.022 0.0121196 
0.0869603 0.0120317 -0.026 
-0.0967202 0.022 -0.00151902 
0.0451261 -0.022 -0.0226424 
0.0149219 0.017131 0.026 
0.0436248 -0.00606545 0.026 
-0.105899 0.0187819 0.026 
-0.0466324 -0.022 0.00171594 
0.0732238 -0.022 1.42567e-05 
0.0647298 0.0145461 -0.026 
-0.0437104 -0.0176742 0.026 
0.0829533 0.0205254 0.026 
0.0985498 -0.022 -0.0171737 
-0.116 0.0138421 0.00451636 
-0.0349287 -0.022 -0.0153366 
-0.03467 0.022 0.0185062 
-0.00307389 0.022 0.00786504 
0.0103156 0.00259873 0.026 
-0.116 -0.00319805 -0.0043678 
0.0716885 0.0188624 -0.026 
0.103636 0.0210444 0.026 
0.0207739 -0.0158682 -0.026 
-0.0045014 -0.022 -0.0178129 
0.0847479 0.0201985 0.026 
-0.0413669 -0.022 0.0182173 
0.110869 -0.000725349 -0.026 
-0.110365 0.022 0.0224949 
0.0415746 0.022 0.00469353 
0.0402105 0.022 -0.0220498 
-0.045588 0.022 0.0159238 
-0.00411358 -0.022 -0.00123526 
-0.0796009 -0.022 -0.00272203 
0.113583 0.022 0.0038815 
-0.116 0.014231 0.00192388 
0.107013 0.022 -0.00519746 
-0.0880514 0.010981 -0.026 
0.111931 -0.0189942 -0.026 
0.116 -0.0145759 0.0255252 
0.0568488 -0.0132935 -0.026 
0.0296107 -0.022 -0.0149316 
0.0034808 0.018205 0.026 
-0.0485171 0.022 -0.0227215 
-0.0429551 -0.022 0.0189296 
0.060583 -0.022 0.00846853 
0.0924431 0.022 0.00281513 
-0.103201 -0.0141182 0.026 
-0.0811399 -0.022 0.0126649 
-0.00468284 0.022 0.0174686 
0.116 0.0168259 0.00476523 
0.0286984 -0.022 -0.00982096 
0.0257251 -0.022 0.0208656 
0.105778 0.00797175 0.026 
-0.0759015 0.022 -0.00764221 
-0.0135054 0.0192581 0.026 
0.0201467 0.022 -0.0159301 
-0.0829351 0.022 0.0243481 
-0.0405373 -0.022 0.00923153 
-0.0297888 0.022 0.0249321 
0.00674171 0.0049651 -0.026 
-0.0237407 -0.0153844 -0.026 
-0.0729459 -0.022 -0.0122026 
-0.00354235 0.00816366 -0.026 
-0.0147777 -0.00964515 -0.026 
0.000717191 -0.022 0.0124549 
-0.116 -0.0119544 -0.0154598 
0.112734 0.022 -0.0119361 
0.0300492 -0.0085882 0.026 
0.0267505 -0.00948522 0.026 
-0.107502 -0.022 0.00612348 
-0.0865686 0.0113235 0.026 
-0.0469732 0.015277 0.026 
0.0312519 -0.022 -0.00841827 
0.0983845 0.00218458 0.026 
-0.112887 0.022 -0.0237247 
-0.0980672 0.022 -0.00137091 
0.016394 0.0030024 -0.026 
0.0149391 0.022 -0.0175872 
0.00810109 -0.022 -0.014436 
0.11462 -0.022 0.0076195 
0.0792851 0.022 -0.0137841 
-0.0719232 0.022 0.00517443 
0.0633875 -0.00930386 0.026 
0.0222607 0.022 -0.00898472 
0.0988 -0.022 0.000901631 
0.0358859 -0.022 0.0165411 
0.0786889 -0.022 0.0120999 
-0.106408 0.022 0.00744576 
0.038297 0.022 -0.00576368 
-0.0745852 0.022 -0.00157021 
-0.10575 -0.022 -0.0228439 
0.000626907 -0.0177862 0.026 
0.0660854 -0.000242963 0.026 
-0.0684161 -0.022 0.0191801 
-0.0148217 -0.022 0.0113256 
-0.00777171 0.022 0.00197316 
0.104977 0.022 -0.00783486 
-0.0293414 -0.0101229 -0.026 
-0.0419913 -0.0121571 0.026 
-0.00189072 -0.022 -0.00483344 
-0.016148 0.00578292 0.026 
-0.0188594 0.022 0.00450531 
0.0588008 0.022 -0.00483961 
0.0607179 -0.0163768 -0.026 
-0.00444132 0.0107226 -0.026 
-0.0813521 -0.022 -0.0104827 
0.0582853 -0.00480658 0.026 
0.090587 0.0123322 -0.026 
0.0751879 -0.022 0.017298 
0.0153389 -0.022 0.00894275 
0.0211478 -0.0120611 -0.026 
-0.116 0.0148818 -0.00843469 
-0.0680228 0.00826261 -0.026 
-0.00869438 0.022 -0.00145612 
-0.0300886 -0.022 0.0165265 
-0.0182302 0.022 -0.00584537 
-0.0406985 -0.0179016 -0.026 
0.0288231 -0.00819272 0.026 
-0.116 0.00447476 0.0219666 
0.0337227 -0.022 0.0149254 
-0.00446666 0.0156151 -0.026 
-0.0806834 0.022 0.0250288 
-0.115902 0.022 -0.00153743 
-0.0788795 0.022 0.0142098 
0.0773014 -0.0208519 0.026 
0.116 0.00401817 -0.0212885 
-0.0926117 0.0159401 -0.026 
-0.0892558 -0.022 -0.0022904 
-0.0227185 0.022 0.0220883 
-0.0577253 0.022 -0.00246945 
-0.0325601 0.00345827 -0.026 
-0.0636478 -0.00270886 -0.026 
-0.0328618 0.0136871 0.026 
-0.0475186 0.022 -0.0108498 
-0.00160483 -0.022 -0.0148034 
-0.0994895 0.00260351 -0.026 
-0.0470551 -0.00539696 -0.026 
-0.0674858 0.022 -0.0202142 
-0.0529567 -0.022 0.00872953 
-0.023477 0.022 -0.00453923 
-0.106968 -0.00991691 -0.026 
0.10908 -0.00976309 0.026 
0.116 -0.00581088 -0.0103743 
-0.0609346 -0.00871719 -0.026 
0.0994198 0.0190485 -0.026 
-0.0892773 -0.0152521 -0.026 
-0.10977 0.022 -0.0138962 
-0.0340582 -0.022 -0.00461842 
-0.0475793 -0.0159071 0.026 
0.077173 0.014676 -0.026 
0.00707221 0.022 0.00367073 
0.0892875 0.0213302 0.026 
-0.00719965 -0.00808636 0.026 
0.0527646 -0.00937783 0.026 
-0.0163751 -0.00276287 -0.026 
-0.0981264 -0.022 0.00453555 
0.0170803 -0.022 -0.0194688 
-0.110747 -0.022 -0.0144817 
-0.022342 0.00775005 0.026 
0.0421564 0.0148912 0.026 
-0.116 0.0142624 0.00861636 
-0.00366534 -0.022 0.0175934 
0.0160153 -0.022 0.00221755 
-0.0584471 -0.022 0.0161668 
-0.0245281 -0.022 0.0104784 
0.0910916 -0.0157063 -0.026 
0.0266284 -0.022 -0.0086878 
-0.0231642 -0.022 0.025272 
-0.0221575 0.022 -0.015966 
0.0231031 -0.022 -0.00885559 
0.00944288 0.0162594 -0.026 
0.00587625 0.022 0.00281077 
0.114772 -0.0019163 0.026 
0.116 0.00957908 -0.0142281 
-0.10666 0.022 -0.0108213 
-0.112678 -0.022 0.00739585 
0.020973 0.022 0.00674236 
-0.116 -0.0149021 0.0116612 
0.0598498 -0.0181002 0.026 
0.000822049 -0.0150595 0.026 
0.0520992 -0.00209094 0.026 
-0.0892226 -0.0135681 0.026 
0.0410728 0.022 -0.0250537 
-0.0766681 0.0142576 0.026 
-0.013615 0.000346705 -0.026 
-0.0342951 -0.022 -0.000625409 
-0.0417873 -0.000737803 0.026 
0.00369057 0.0216376 0.026 
-0.0139494 0.00804024 -0.026 
0.0525741 0.022 0.0226654 
-0.065951 0.022 -0.0143173 
0.0494249 0.00492082 -0.026 
-0.0881307 -0.022 0.0243399 
-0.105451 0.00841986 0.026 
-0.00144587 0.0159628 -0.026 
0.0198821 0.000350958 -0.026 
0.0246369 -0.0210132 0.026 
-0.0596202 -0.022 0.00917115 
0.0114308 0.012905 -0.026 
-0.0790825 0.022 -0.00260702 
0.094816 -0.0203441 0.026 
-0.0977012 0.00491866 -0.026 
-0.0204512 0.022 0.0239147 
0.0392823 -0.022 -0.000571568 
0.0363567 0.022 -0.00727469 
-0.00595036 0.022 0.0120837 
0.0201878 0.022 -0.000758383 
-0.0966375 -0.022 -0.0206933 
-0.116 -0.0197061 0.00281764 
-0.0413071 -0.0201899 -0.026 
-0.0138627 0.022 0.0169407 
-0.116 -0.009804 -0.00919979 
-0.0137299 -0.00759793 -0.026 
-0.103981 0.022 -0.00355565 
-0.0538345 -0.00158908 0.026 
0.0844576 -0.022 -0.0226991 
0.1054 0.022 0.0157647 
-0.0384034 0.022 -0.00453702 
-0.0331544 0.022 0.0144608 
0.106754 0.00073199 -0.026 
-0.0162691 0.0191553 -0.026 
-0.115654 -0.022 0.0126228 
-0.110211 0.022 0.000661935 
0.0113694 -0.0167145 -0.026 
-0.100932 0.022 0.0226378 
-0.0394034 -0.022 -0.0232484 
0.0574594 -0.022 -0.00202389 
0.0635121 -0.0167291 -0.026 
0.0970707 0.022 -9.47872e-05 
0.0111365 0.022 0.0118017 
0.0563911 -0.022 -0.0233251 
0.000701256 0.000506092 0.026 
-0.0610607 0.0170018 0.026 
-0.0269505 0.022 -0.0221905 
-0.019472 0.022 0.0213731 
-0.0209021 0.022 -0.0259926 
-0.0807789 -0.022 0.00820176 
0.113959 0.022 0.0024654 
-0.0478642 -0.0104324 0.026 
-0.116 0.0014483 0.0140222 
0.0605569 0.022 0.0104706 
-0.0552995 0.015074 -0.026 
-0.072814 0.022 -0.0249281 
0.0681539 0.022 -0.0231157 
0.0639579 0.022 0.0155785 
-0.0315674 0.00951041 0.026 
-0.0424969 0.00443043 -0.026 
0.0593264 -0.00568141 0.026 
-0.0565672 -0.022 0.0148068 
0.0254856 0.022 -0.0237863 
-0.0541105 -0.022 0.018396 
0.113526 -0.022 0.00102453 
0.100798 -0.022 -0.00805391 
0.0832571 0.0147658 -0.026 
0.0395378 0.0111577 -0.026 
0.111201 -0.00166991 0.026 
0.0819249 -0.0150962 -0.026 
-0.082833 -0.022 -0.0239314 
0.0954001 -0.022 0.0105379 
0.0618966 -0.00918552 -0.026 
-0.0492501 0.0198064 0.026 
-0.116 0.0144651 -0.0198823 
-0.084384 -0.022 0.00342645 
0.0690912 0.022 0.0210099 
-0.0629563 -0.022 0.0053685 
0.116 -0.0157051 -0.0122947 
-0.109907 0.022 -0.00714088 
-0.0379143 -0.000575659 0.026 
-0.116 -0.0184543 -0.00766704 
-0.106489 -0.022 0.002038 
-0.0916759 -0.022 0.0224211 
0.0916909 0.022 0.0238617 
0.0754374 -0.022 -0.0256087 
0.0917829 0.022 0.00617998 
-0.0966233 0.0180171 0.026 
-0.0863094 -0.0017989 -0.026 
0.0592309 -0.022 -0.0238951 
-0.0490843 -0.022 0.0222399 
-0.0418511 -0.0137453 -0.026 
0.109464 0.00435251 0.026 
0.0945383 0.015434 -0.026 
0.0146608 -0.0188276 -0.026 
0.0477382 -0.020151 -0.026 
0.00424733 0.022 -0.0156191 
0.0170932 -0.022 0.0185701 
0.0909254 0.0149234 -0.026 
-0.116 0.00779609 -0.00790694 
-0.0387618 -0.022 0.00153123 
-0.0647821 -0.00580247 -0.026 
-0.00666431 -0.022 0.015571 
-0.08948 0.022 -0.0173294 
-0.055544 0.00407983 -0.026 
-0.0808519 0.0146186 0.026 
-0.10418 0.00359257 0.026 
0.0101459 -0.022 -0.0183755 
0.0764685 -0.00958532 0.026 
0.109338 0.022 0.0118752 
0.0868543 -0.0037633 -0.026 
0.0249559 0.022 0.0147264 
-0.0142046 -0.022 0.00755063 
-0.0701438 -0.00331981 -0.026 
-0.114731 0.0153613 -0.026 
0.110072 0.022 0.0232603 
0.0247468 -0.022 0.022758 
0.0602566 -0.00921265 -0.026 
-0.103094 0.022 -0.0249229 
0.0438758 0.022 -0.0206989 
0.0795376 0.00631557 0.026 
0.0333405 0.022 0.0128289 
-0.0940068 0.0125784 -0.026 
0.00138356 -0.022 0.00318898 
0.116 0.0176868 0.000894226 
0.115696 -0.0189394 0.026 
0.0894876 -0.00414624 -0.026 
-0.0188913 -0.022 -0.0011107 
-0.0511422 0.00121427 -0.026 
0.0435285 0.022 0.0240383 
-0.0672601 0.022 -0.0137059 
-0.0682827 -0.0209232 0.026 
0.0843027 -0.00828303 0.026 
0.116 0.0209687 -0.0163639 
-0.116 -0.00838542 0.00370933 
-0.113907 -0.022 0.0207785 
0.116 0.0057189 -0.00976732 
-0.0142147 -0.0138443 -0.026 
0.0894809 -0.000536498 0.026 
0.0386873 -0.022 0.012867 
-0.0196024 -0.0189037 -0.026 
-0.0734761 0.00882458 0.026 
-0.0599891 0.022 0.00763309 
-0.00466992 -0.0190776 0.026 
0.0595897 0.022 -0.0220753 
-0.104282 -0.022 0.000224262 
-0.0521175 0.000420393 0.026 
-0.0643984 0.022 0.00158625 
-0.116 -0.0191883 0.0122917 
0.0404923 -0.022 -0.0042484 
0.096796 -0.00282258 -0.026 
0.10315 -0.022 0.000201646 
0.0120724 0.00499207 0.026 
0.0446506 0.022 -0.0222992 
-0.0474402 0.022 -0.025319 
0.116 -0.0216521 -0.0159328 
0.0316088 0.0105122 0.026 
0.0611421 0.00546037 0.026 
0.0809608 0.020979 -0.026 
-0.0277399 -0.022 0.0192489 
-0.049242 -0.00256894 0.026 
-0.0860951 0.022 0.0219564 
-0.00652808 0.022 -0.0152771 
0.00981878 -0.00859685 0.026 
-0.0418739 0.022 0.0143747 
-0.0948993 -0.00605189 0.026 
-0.0505308 -0.00810192 0.026 
0.00379265 -0.0177101 0.026 
-0.0485171 -0.00678261 0.026 
0.0881094 -0.022 0.0239655 
-0.0873846 0.00834098 -0.026 
0.101835 0.022 -0.0109651 
-0.0263495 -0.00934251 0.026 
0.0250566 0.00159739 -0.026 
-0.0752848 -0.022 -0.0118524 
-0.110211 -0.008245 -0.026 
0.0289641 0.022 -0.00879467 
-0.0350947 0.022 -0.0226732 
-0.0936791 0.00650131 0.026 
-0.0168749 0.0160139 0.026 
-0.094929 -0.022 -0.0177472 
-0.103871 0.0168842 -0.026 
-0.0171053 -0.022 0.0171195 
0.0719292 -0.022 -0.00665674 
0.114673 -0.022 0.022055 
-0.0181149 -0.00933657 -0.026 
0.0416274 -0.0207968 -0.026 
0.0384794 0.022 0.00895993 
0.010362 -0.0163489 -0.026 
0.0362055 0.0141484 -0.026 
-0.000956723 -0.022 -0.0222104 
-0.0978761 -0.022 0.00738738 
-0.0261956 0.022 -0.0232457 
0.070846 0.022 0.0178417 
-0.0197253 0.022 -0.00990916 
-0.11091 0.00537831 -0.026 
-0.0309646 -0.022 -0.000328714 
-0.0717871 0.022 -0.00858404 
0.0784444 0.022 0.018512 
0.102484 -0.00195754 0.026 
-0.0577849 -0.022 0.00422047 
0.112678 -0.022 -0.00342115 
-0.00883972 -0.022 0.0231377 
-0.116 0.00280178 0.00652288 
-0.0557331 -0.022 -0.00399414 
0.116 -0.00153352 -0.0230377 
0.0745679 -0.022 -0.00943349 
0.0134597 -0.00837595 -0.026 
-0.0049172 -0.00836703 -0.026 
0.0749763 -0.000494322 0.026 
0.0568912 0.022 0.00397358 
0.0855265 -0.0164313 0.026 
0.00737591 0.00433982 0.026 
0.0758003 0.022 0.00668139 
0.0704704 -0.022 -0.0182069 
0.0306962 -0.022 -0.0224391 
0.0614083 0.00447997 -0.026 
0.0923507 -0.022 -0.010524 
-0.103779 -0.0217473 0.026 
-0.0883847 -0.022 -0.0151881 
0.0333297 -0.022 -0.0230167 
0.0297084 0.022 -0.0140186 
0.0816214 0.022 -0.013278 
-0.10889 0.00291807 -0.026 
-0.116 -0.00903006 0.0145555 
-0.11286 0.0161102 -0.026 
-0.067278 -0.017726 0.026 
-0.0980173 -0.0184444 0.026 
-0.0529097 -0.022 -0.000329424 
0.0345667 0.0168043 0.026 
0.0310978 1.64937e-05 0.026 
-0.0683808 0.000316609 0.026 
0.0187506 0.022 0.0145936 
-0.00243183 -0.022 0.0147951 
-0.103071 -0.022 0.0248539 
-0.00502109 -0.022 0.02489 
-0.0908585 0.0131308 0.026 
0.000657521 -0.0128461 0.026 
0.0945329 -0.022 0.00848577 
0.0335305 -0.022 0.00984957 
0.0553977 -0.0183735 0.026 
-0.0513497 -0.022 -0.0142398 
0.0770037 -0.00818127 -0.026 
-0.0843477 -0.022 -0.0187013 
-0.10488 0.0116169 0.026 
-0.0468793 -0.0079757 0.026 
-0.0451594 -0.022 -0.0172461 
0.106927 0.0048292 -0.026 
-0.0199823 0.0126926 -0.026 
0.00149021 0.00404415 0.026 
0.0216936 0.00881225 0.026 
-0.1119 0.00492605 -0.026 
0.10356 0.022 0.0216394 
-0.0354754 -0.00742393 0.026 
0.0298253 0.022 0.00762788 
0.0644728 -0.022 0.00971789 
-0.00930822 -0.00424049 0.026 
-0.0744129 -0.0124139 -0.026 
-0.0388386 0.00468285 0.026 
0.048948 0.00224116 0.026 
-0.116 0.0208535 -0.0205742 
0.0749803 0.0143967 -0.026 
0.0883582 0.00149592 -0.026 
-0.0253968 0.000240874 0.026 
0.031656 -0.0194974 -0.026 
0.0920962 -0.00821155 -0.026 
0.015764 0.022 -0.0195431 
-0.0681236 0.00236504 0.026 
-0.0842997 0.022 -0.00908088 
0.110208 0.022 0.024513 
0.111311 -0.022 -0.011061 
0.0831229 0.022 0.00719459 
0.00966259 0.022 -0.0208667 
0.0872381 0.0170455 0.026 
-0.116 0.0217928 0.0189764 
0.114342 0.022 0.0253818 
0.0128152 -0.022 0.00838426 
0.0301967 -0.0163385 0.026 
-0.0491584 0.00759775 0.026 
0.00265821 -0.022 -0.0242057 
0.0853335 0.022 0.0215814 
0.0612943 -0.022 -0.0249177 
-0.0168893 -0.0134454 -0.026 
-0.00937912 -0.022 -0.0237695 
0.0341135 0.022 0.00752931 
-0.116 -0.00608365 0.0234001 
0.0906922 -0.022 0.0237903 
-0.00796014 -0.022 0.0208512 
0.0469177 0.022 0.0221553 
0.0590043 -0.022 0.0196226 
-0.109937 -0.0102246 -0.026 
-0.082934 -0.022 0.00922784 
-0.0581969 0.00557439 0.026 
-0.0190882 0.0147912 0.026 
0.0766312 0.022 0.0259806 
-0.0926408 -0.0175467 0.026 
0.0064603 0.022 -0.0089535 
0.0359303 -0.0210009 0.026 
-0.105166 -0.00958643 0.026 
-0.110743 -0.022 0.0177104 
0.0941075 -0.00901186 -0.026 
0.0960181 0.0121807 0.026 
-0.00893326 0.0144766 0.026 
0.0147878 0.00796728 0.026 
0.0251117 -0.022 -0.00500565 
0.0235762 -0.022 0.0236003 
-0.116 0.0155328 0.0108127 
-0.0201205 0.0176979 -0.026 
-0.0218845 -0.0148676 0.026 
-0.065013 0.0136909 -0.026 
0.0832878 0.022 0.0258381 
-0.00605003 -0.022 0.00718952 
0.0698905 -0.022 0.0150244 
-0.0736298 -0.022 -0.00465489 
-0.0334755 -0.0104105 -0.026 
-0.0861735 -0.022 -0.00864291 
0.0779603 0.0171729 -0.026 
-0.00695032 -0.022 -0.00351337 
-0.086314 0.022 -0.00546918 
0.0349297 -0.00355503 0.026 
-0.00694641 -0.00497014 -0.026 
0.113556 0.022 -0.0169753 
-0.0246822 -0.00606891 0.026 
0.0901745 -0.00125922 -0.026 
0.116 -0.0207733 -0.0117849 
0.0929241 0.00930867 -0.026 
0.044981 -0.022 -0.00921449 
-0.0484478 -0.022 0.0112905 
0.0232484 -0.0187623 0.026 
-0.0342414 0.0219678 -0.026 
-0.116 -0.0140381 -0.0125503 
0.0737341 0.022 0.0212734 
0.0442916 -0.022 -0.00447352 
0.0675423 -0.0157382 0.026 
0.0703333 0.022 -0.0112073 
-0.0573829 -0.022 -0.0204793 
0.116 0.0110969 0.0143932 
-0.00956978 0.0219253 0.026 
0.00723592 0.0204175 0.026 
-0.00846871 0.022 -0.0060443 
-0.0561031 0.022 0.00705658 
0.0495282 0.022 -0.00459627 
-0.0310719 -0.0104977 0.026 
0.0768514 0.0107018 -0.026 
-0.0847749 -0.022 0.00688632 
-0.0660756 0.019428 -0.026 
-0.11011 -0.00220114 0.026 
0.0701566 -0.022 0.0106137 
-0.116 -0.00515649 -0.00723422 
0.0284304 0.0169163 -0.026 
0.116 -0.0116443 0.0144284 
0.000536021 -0.022 -0.00567394 
-0.0749529 0.0208509 0.026 
0.116 0.0156586 0.00934322 
0.0366147 0.0183363 0.026 
0.0378351 -0.0208824 0.026 
0.0506119 -0.0170667 0.026 
0.0778153 -0.022 -0.0244107 
0.0949465 0.0180492 -0.026 
0.0197023 -0.022 -0.00677792 
0.0275662 0.022 0.0204516 
-0.0672228 -0.0131075 0.026 
0.0704184 -0.0155517 -0.026 
-0.0769358 0.022 0.00846041 
-0.0202527 -0.00651246 0.026 
0.11482 -0.022 -0.0189079 
-0.0251987 -0.000273223 -0.026 
-0.116 0.0151886 -0.00969462 
-0.0140559 -0.0176677 0.026 
0.116 -0.0131349 -0.000271617 
-0.0408886 -0.0023895 0.026 
0.00870991 -0.022 0.0206027 
0.114645 0.0146915 -0.026 
-0.110065 0.022 -0.0206415 
-0.0646319 0.00839965 0.026 
-0.10045 -0.022 -0.0114707 
-0.00645752 0.022 -0.010093 
0.00830643 0.0043589 -0.026 
0.111664 -0.022 0.00664997 
-0.0915149 -0.0179885 0.026 
-0.0436882 0.0206975 -0.026 
-0.116 -0.0144613 0.0104572 
-0.116 -0.0163778 0.0247135 
-0.116 0.0195823 -0.0210229 
-0.0569211 0.022 0.00780335 
0.0766169 -0.0138976 0.026 
0.116 -0.0159349 0.0166487 
-0.0949355 0.022 -0.0134024 
-0.0715031 -0.012113 -0.026 
0.116 0.017075 0.00187676 
-0.105761 0.022 0.01959 
-0.0747177 -0.0174525 0.026 
0.00533549 -0.022 0.00924229 
-0.0953896 -0.00298768 0.026 
0.0272715 0.022 0.00357089 
-0.0228874 0.022 -0.0234047 
-0.092949 -0.022 -0.015683 
0.0851255 0.022 0.00377049 
-0.0195023 -0.000763383 -0.026 
0.10041 -0.0190398 -0.026 
0.0924399 0.022 0.0229699 
-0.0190509 -0.00357105 0.026 
-0.0962911 0.0115005 -0.026 
-0.0120968 0.022 -0.00568025 
-0.00289456 -0.022 0.0104398 
0.0643066 0.0158258 -0.026 
-0.0065667 0.022 0.0111413 
0.0675454 -0.022 0.0194729 
0.0462703 0.0195167 -0.026 
0.111684 0.022 0.0194814 
-0.0519717 -0.022 -0.0167574 
0.0485133 0.022 -0.00964879 
0.0478854 -0.022 -0.0206951 
0.0876383 -0.022 0.0217055 
-0.10127 0.0105351 0.026 
-0.0867531 -0.022 0.0173966 
-0.0373291 0.00714998 0.026 
-0.0139954 -0.022 -0.00315979 
-0.105753 7.9934e-05 -0.026 
0.0631045 -0.00683623 0.026 
-0.0981282 -0.022 0.00290779 
0.0835602 -0.022 0.0068226 
-0.067407 -0.022 -0.0109979 
-0.0409531 0.022 -0.0235329 
-0.0439903 -0.00217739 -0.026 
0.084663 0.0137914 0.026 
-0.0547494 -0.00460188 0.026 
0.0889493 0.022 -0.0200455 
0.103569 -0.022 -0.0014543 
-0.112899 0.022 0.0160226 
0.024513 -0.022 -0.00390796 
-0.0553299 0.022 0.0172683 
0.0615842 0.022 -0.0102301 
0.0910664 0.0185356 -0.026 
-0.0439525 0.022 -0.0234426 
-0.113725 -0.00520157 -0.026 
0.0706704 -0.0201823 -0.026 
-0.0206204 0.022 -0.00500783 
-0.0701783 -0.022 0.00818505 
-0.101614 -0.022 0.010422 
-0.0464133 0.0114871 -0.026 
0.0360061 -0.0122336 0.026 
-0.0139033 -0.022 -0.0188091 
0.0315801 0.022 0.0209064 
-0.0388836 -0.022 0.0215288 
-0.115269 0.0093419 -0.026 
-0.108012 0.022 0.0162204 
0.104403 0.00751479 0.026 
0.017166 -0.0158922 0.026 
0.106583 -0.022 0.0232123 
-0.0775916 0.00610304 -0.026 
0.116 -0.00960852 -0.00497546 
0.018963 -0.0105614 -0.026 
-0.0557946 0.0174032 0.026 
-0.0638498 0.000237225 -0.026 
-0.0576143 0.022 0.0160228 
-0.116 -0.014473 0.0225874 
-0.00954946 0.00742109 0.026 
0.0389638 -0.022 -0.0110468 
-0.0557214 -0.022 -0.0103092 
-0.116 -0.0167103 0.00946471 
0.0823953 -0.0139955 -0.026 
-0.0199193 -0.022 -0.0122529 
-0.0187508 0.0116965 -0.026 
0.11475 -0.0156217 -0.026 
0.110313 0.022 0.0156844 
-0.0412745 -0.022 0.00482597 
-0.0667828 -0.022 -0.00151241 
0.0854325 -0.0125491 0.026 
0.116 -0.00999037 -0.00916277 
0.109034 0.022 0.010695 
-0.0863612 -0.022 -0.00200564 
0.0814845 -0.022 0.00294948 
0.0631898 -0.00432088 -0.026 
-0.0337307 -0.0180631 -0.026 
0.00685255 -0.0206799 0.026 
-0.0653502 0.022 0.0125362 
0.104272 -0.0191173 0.026 
-0.114314 -0.00996021 -0.026 
0.104496 -0.022 -0.0231541 
0.114875 -0.00251414 -0.026 
0.103785 0.0187233 -0.026 
0.0631517 -0.022 -0.00719439 
-0.0692091 -0.022 0.0248948 
0.0602755 0.022 0.0205472 
0.0254121 -0.022 -0.00121491 
0.000332681 -0.0105381 -0.026 
-0.00516376 -0.022 0.00139854 
0.0448793 0.022 -0.00570753 
-0.01281 0.022 -0.0250179 
0.0306934 -0.00280731 -0.026 
-0.0966104 0.00587579 0.026 
-0.0177589 -0.022 0.00175853 
0.116 -0.0181043 0.00984596 
-0.0449321 0.022 -0.0225461 
0.100623 0.000719869 -0.026 
0.0206476 -0.0105499 0.026 
-0.0624062 0.00659037 -0.026 
-0.0594232 0.022 0.0169011 
-0.0475934 -0.0147308 0.026 
-0.074347 0.0182051 0.026 
0.0618578 -0.022 -0.0222335 
-0.0169646 -0.022 -0.00284287 
0.088532 0.022 0.00316154 
-0.102169 -0.0027029 -0.026 
-0.0303523 0.011071 -0.026 
0.0352323 0.00204455 0.026 
0.113418 0.0119219 -0.026 
-0.0306359 -0.017646 -0.026 
-0.110816 -0.00576249 0.026 
-0.0523516 -0.022 0.0098215 
0.00752508 -0.022 -0.0102462 
-0.0558102 -0.022 -0.000651134 
0.116 -2.84822e-06 0.00304317 
-0.116 0.00332493 0.00553861 
-0.0735872 -0.022 -0.0214757 
0.0371875 -0.0184638 -0.026 
0.116 -0.000129231 0.00642465 
0.0404886 -0.0214226 -0.026 
-0.014862 -0.022 -0.00910494 
0.0481836 0.022 -0.00813727 
-0.0365828 0.00158697 0.026 
0.0857027 -0.022 0.00172415 
-0.00590981 0.022 0.0013674 
-0.0038933 -0.0123414 -0.026 
-0.0456886 0.022 -0.00183877 
-0.087198 -0.00817943 0.026 
-0.0768344 -0.0108383 0.026 
0.0642494 0.00140804 0.026 
-0.108151 0.022 -0.0180622 
-0.0102295 -0.0154376 0.026 
0.0724521 0.00654967 -0.026 
0.0495595 0.022 -0.00716075 
0.116 -0.0218047 -0.00156465 
0.0374466 -0.0173115 -0.026 
-0.00922297 0.022 0.019757 
-0.0738016 -0.022 0.0103337 
-0.0996516 -0.022 0.0208005 
0.0334634 0.022 0.0252503 
-0.0846855 0.0044195 -0.026 
-0.0440876 -0.022 -0.025278 
-0.116 -0.0160237 -0.0180636 
0.042092 0.022 0.0183155 
0.0169477 0.022 -0.00829419 
0.0759629 0.022 -0.0202947 
0.0542114 0.022 -0.012919 
-0.0580823 -0.000756 0.026 
0.0497434 0.022 -0.0194675 
-0.0431247 -0.022 -0.0154447 
-0.0613932 -0.022 0.00232806 
-0.012374 0.0189666 0.026 
-0.0478472 0.022 0.0111689 
-0.0677972 0.0209703 -0.026 
0.0729015 0.022 -0.0216108 
-0.0548933 0.022 0.0225622 
0.0125313 5.83789e-05 -0.026 
0.0593011 -0.022 -0.0148578 
0.0810405 -0.0197897 -0.026 
-0.0135279 -0.022 0.0206239 
0.059746 0.022 0.0238885 
-0.0814995 -0.022 0.0219192 
-0.115518 -0.022 -0.000723198 
0.111477 -0.022 -0.00848922 
-0.102331 0.022 -0.0186467 
-0.0863036 -0.022 -0.0169268 
-0.0418619 0.0142658 0.026 
-0.0417463 0.0154413 0.026 
0.116 0.00157053 0.0111896 
0.025213 0.022 -0.00670379 
-0.109177 0.022 0.0114976 
-0.0673193 -0.000358166 -0.026 
0.0941655 0.0032775 0.026 
-0.0134499 -0.022 0.0191295 
0.0681825 0.0101053 0.026 
-0.0951645 0.02028 0.026 
-0.0266662 0.022 0.000270687 
-0.0495999 -0.00667839 0.026 
0.0252353 0.022 -0.0217512 
-0.0328448 0.0156039 0.026 
0.000169914 0.022 0.0147695 
-0.106009 -0.022 -0.00141875 
0.0513687 -0.022 0.0258678 
-0.0696911 0.0162264 0.026 
0.103396 0.022 -0.00401054 
-0.0388714 0.022 -0.0199938 
-0.0903086 0.022 -0.0165191 
-0.0393076 -0.022 0.0225683 
-0.0098189 0.0188626 0.026 
-0.0319094 -0.022 0.0013762 
-0.0077273 0.000360524 0.026 
-0.0737656 0.00375554 0.026 
0.0151381 -0.022 0.00702982 
-0.0888977 0.000775207 -0.026 
-0.00230651 -0.022 -0.00985251 
0.116 0.0188675 -0.00415467 
0.0834628 0.022 -0.0258756 
-0.085258 -0.0141715 -0.026 
0.116 -0.000302904 0.0132385 
0.037551 -0.022 0.00133172 
0.00228021 0.00369834 -0.026 
0.116 -0.00403249 -0.0247995 
0.0653502 -0.022 0.0164448 
0.00377136 0.0112679 -0.026 
-0.0126283 0.022 -0.0239492 
0.110086 -0.022 0.00417704 
-0.00317793 0.022 -0.0192602 
0.116 0.0184922 0.00855283 
-0.0430039 -0.0125025 0.026 
0.0631245 0.022 -0.0219524 
-0.104605 0.022 -0.00164455 
0.0442062 -0.00958153 0.026 
0.0214172 0.000721577 -0.026 
0.100333 -0.022 -0.0205561 
-0.0909324 0.022 0.012043 
0.0169766 0.00710353 -0.026 
0.0119478 -0.022 0.0214336 
0.114826 -0.022 -0.0220207 
-0.0057264 -0.00338595 -0.026 
-0.0390275 0.0213996 0.026 
-0.00212148 -0.022 -0.01653 
0.0450559 -0.00193968 0.026 
0.0170671 -0.022 -0.017275 
0.0242547 -0.022 -0.00195228 
0.0813332 0.022 -0.021262 
-0.0837035 0.022 -0.0169687 
0.0814013 0.022 0.00338988 
0.116 -0.00382335 -0.0113176 
-0.00474824 0.00102602 0.026 
-0.0700219 -0.022 0.0207819 
-0.00531322 0.022 -0.0229934 
0.0322386 0.022 0.0168249 
0.0414652 -0.022 0.00679308 
0.116 -0.0157009 0.00901897 
-0.0512432 -0.00743296 -0.026 
0.0960688 -0.0040577 0.026 
-0.109192 -0.00380241 -0.026 
-0.0458242 0.022 0.00265792 
0.116 0.0195381 -0.0182474 
-0.0955077 -0.022 0.0039937 
-0.0041527 0.022 -0.0215268 
0.0103015 -0.00401513 -0.026 
0.0976469 0.022 0.00104944 
0.106145 0.022 0.0125366 
0.00698368 0.00561599 0.026 
0.0883835 0.0101172 -0.026 
-0.116 0.00389995 0.0185373 
0.070367 0.022 -0.00722968 
0.093655 -0.022 -0.00243781 
0.0253822 0.022 0.0218965 
-0.048859 -0.00439638 -0.026 
-0.116 -0.00239781 0.0256991 
0.0893519 0.00673836 0.026 
-0.116 0.00294717 -0.00559305 
0.0724801 0.022 -0.0183702 
0.0151199 0.022 -0.0028596 
-0.0378076 0.022 0.0110725 
-0.077988 0.00159398 0.026 
0.00440584 0.0192554 0.026 
0.0381897 0.022 -0.0217563 
-0.0542955 -0.022 -0.00503555 
0.0985384 -0.022 0.00223174 
-0.0806469 -0.0149518 -0.026 
0.0219131 0.022 -0.00730875 
-0.0733146 0.022 -0.00166329 
-0.00245658 -0.0135715 -0.026 
-0.0836671 -0.022 -0.0169885 
0.116 0.0156581 0.0197434 
0.11539 -0.022 0.011311 
-0.0177238 0.022 0.00929392 
0.0079262 0.022 0.00158384 
-0.00360212 0.00516237 0.026 
-0.11317 0.00743477 -0.026 
0.0896523 0.022 0.00919776 
-0.0537882 -0.00976486 -0.026 
0.0315943 -0.022 -0.0216558 
0.100465 -0.022 -0.0161712 
-0.00210444 0.022 0.0171869 
-0.101248 0.000812233 0.026 
0.116 0.0095851 0.0108226 
0.0791174 0.022 0.0223493 
0.00517038 -0.022 0.00290902 
0.105425 0.022 0.00484189 
0.116 -0.0155576 -0.00523039 
0.0177541 0.022 -0.015195 
-0.0824018 0.022 0.0122637 
0.066997 -0.022 0.00042972 
0.0832487 -0.022 -0.00249534 
0.085983 0.0154106 -0.026 
0.101242 0.0207843 0.026 
0.0121873 -0.022 -0.0120118 
0.0563161 -0.001752 0.026 
-0.0721464 0.022 0.0204231 
-0.10767 -0.00863054 -0.026 
0.050537 -0.022 -0.0111162 
-0.0801506 0.0187821 -0.026 
0.0919868 -0.0175621 0.026 
-0.0969637 -0.00590344 0.026 
0.0582832 0.022 -0.00297409 
0.00284446 0.00937043 0.026 
-0.0600551 -0.0134603 -0.026 
-0.0326511 -0.022 -0.00552474 
0.050858 0.022 0.00337536 
-0.00809846 -0.0089645 0.026 
0.116 -0.0123044 0.0135899 
-0.0615517 -0.022 0.00371318 
-0.116 0.0164852 -0.0149046 
-0.0274075 0.022 0.00532511 
-0.0315536 0.0116191 -0.026 
-0.0346944 0.022 0.0030169 
-0.048461 0.022 -0.000997493 
0.0197546 0.022 0.00231669 
-0.111839 -0.022 0.00921182 
-0.01976 0.0131876 0.026 
0.0498731 -0.022 -0.0124176 
0.0826773 -0.00866633 -0.026 
-0.0955338 -0.022 0.0233285 
-0.116 0.00522135 -0.00127426 
-0.0629273 0.022 -0.00772564 
0.108827 -0.022 0.0114617 
0.00786214 -0.00730422 -0.026 
-0.109241 0.022 -0.0149418 
0.110428 -0.022 -0.0249543 
-0.0776382 -0.022 0.0122 
-0.0754233 -0.00500526 0.026 
-0.0139335 0.022 0.0249674 
0.11465 -0.003929 0.026 
-0.0232172 0.022 0.00341531 
-0.0242451 0.022 0.00485987 
0.0630248 -0.0121656 0.026 
0.0236832 -0.014334 -0.026 
0.0319667 0.022 0.00483754 
0.0512607 -0.000838105 -0.026 
-0.0123093 -0.022 0.0147797 
0.0297174 -0.018999 0.026 
-0.101898 0.00738918 0.026 
-0.019792 -0.0149285 0.026 
0.00326577 -0.0123786 -0.026 
0.0916796 0.0148876 0.026 
-0.0648481 -0.022 0.0135438 
-0.0314024 -0.022 -0.0252397 
-0.107243 0.00310569 0.026 
-0.00302226 0.0184533 -0.026 
-0.0829619 0.022 0.0210388 
-0.116 0.0100563 0.0120881 
0.105345 0.022 0.0174847 
0.0872363 -0.0138886 -0.026 
0.0803571 0.00552863 0.026 
0.0568283 -0.022 0.0171228 
0.0610911 -0.0137452 0.026 
-0.114976 0.01306 0.026 
-0.0800569 -0.00978622 0.026 
0.00684562 -0.022 -0.0207386 
-0.113916 0.022 -0.012522 
0.0155838 -0.00829095 0.026 
0.0277533 -0.022 0.00188631 
0.116 -0.0213178 0.012536 
0.0777845 0.0043552 -0.026 
0.0693841 -0.0195521 -0.026 
-0.0705506 0.010212 -0.026 
0.0939187 -0.0121737 0.026 
-0.097526 0.0174011 -0.026 
0.00938637 -0.0171778 -0.026 
0.070073 -0.0102663 0.026 
0.0652142 0.00230742 0.026 
-0.0571783 0.022 0.00639435 
-0.103197 -0.0151055 -0.026 
0.0670492 0.022 0.00314424 
-0.0569521 0.022 -0.0112762 
-0.0955171 0.022 0.0179607 
0.00920658 -0.0010599 -0.026 
-0.0627844 0.022 -0.0223717 
0.0545342 0.0126445 -0.026 
0.116 0.00918327 -0.00048333 
-0.103742 -0.022 0.0104691 
-0.0679396 -0.022 0.0103375 
0.0581081 0.0122191 0.026 
-0.0501951 0.022 -0.00997967 
0.0767242 -0.0113326 -0.026 
0.00959767 0.00699904 -0.026 
-0.0450068 -0.00973784 -0.026 
0.0259523 0.022 -0.0090833 
0.00374316 -0.0186085 -0.026 
0.0628878 0.00755977 -0.026 
-0.107851 0.00513099 0.026 
0.0158556 -0.022 -0.00283253 
0.0588579 0.0166316 0.026 
-0.0522017 -0.022 0.0229011 
-0.0682133 0.022 0.0143548 
0.111865 0.022 0.000672812 
0.116 -0.0179289 -0.00773902 
0.0861741 0.022 -0.0222084 
0.0138622 0.0197641 0.026 
0.0600334 0.0205241 0.026 
0.0394944 -0.022 0.0110048 
0.0176745 0.022 0.012187 
0.0437248 0.00628159 -0.026 
-0.11477 0.022 0.0116972 
0.0407365 -6.06142e-05 0.026 
0.0857345 0.0088378 -0.026 
0.0202347 0.022 0.0107364 
-0.0651526 -0.0204429 -0.026 
0.0661154 0.022 0.0189803 
-0.0908446 -0.0168623 -0.026 
0.0838414 0.022 -0.00335198 
-0.116 -0.00224569 0.0124028 
0.019045 0.022 -0.0113716 
0.0709595 -0.00169316 -0.026 
0.0412465 0.022 -0.014022 
0.0594213 -0.022 0.0120665 
-0.116 0.0150539 -0.00400871 
0.116 -0.017741 0.00189452 
-0.0686656 0.022 0.0246271 
-0.0155962 0.022 -0.00779503 
-0.0658945 0.0145065 0.026 
0.116 -0.0219716 0.0208735 
-0.112675 0.00306621 -0.026 
0.0976305 -0.022 -0.0249531 
-0.0347927 -0.022 0.0168526 
-0.0633629 0.008514 0.026 
-0.0259578 -0.0111201 0.026 
-0.0619431 -0.0204041 0.026 
0.0105405 -0.013389 0.026 
0.102059 0.0196014 0.026 
0.0265762 0.022 -0.0239247 
0.116 -0.0047539 0.0129557 
-0.00562084 0.022 0.0234778 
0.0741887 0.00699951 -0.026 
-0.0889831 -0.0152668 0.026 
0.0651489 0.022 0.0239298 
-0.0917282 0.022 -0.0166313 
-0.0777939 -0.0133688 -0.026 
0.0835028 -0.022 0.0136615 
-0.107095 -0.00574438 0.026 
0.00346197 0.022 0.0162973 
0.104462 0.00540177 0.026 
-0.116 0.017656 0.0101602 
-0.116 -0.00789876 0.0163568 
-0.0515087 0.022 -0.0175164 
-0.0791932 0.022 0.000612562 
0.0177644 0.000632729 0.026 
0.0592882 -0.022 -0.00321802 
0.0106445 -0.022 -0.0242958 
-0.0523601 0.00343679 0.026 
0.00172 0.0160419 0.026 
0.101755 -0.022 0.0150061 
-0.0725273 0.0219933 -0.026 
0.0484999 0.022 0.0207821 
-0.0590969 0.022 0.00839254 
-0.116 -0.0186368 -0.00917295 
-0.096643 0.022 -0.0118463 
-0.0566201 -0.022 -0.0182334 
-0.103376 0.022 0.00864146 
0.082106 -0.00533675 0.026 
-0.0663871 -0.022 0.0225357 
-0.000117136 -0.022 -0.0168753 
0.0305524 0.0201321 0.026 
0.116 6.14338e-05 0.017601 
0.0399711 0.022 -0.0245651 
-0.0698649 -0.022 0.012457 
-0.088207 -0.014383 0.026 
-0.0323131 -0.022 -0.0258014 
0.0818706 0.022 -0.00562987 
-0.0644304 -0.022 -0.00475285 
0.0924972 0.0141103 0.026 
-0.107353 0.022 -0.0168396 
-0.0819912 -0.022 -0.00132622 
0.00304595 -0.022 0.0220655 
0.113531 -0.022 -0.0253945 
-0.011231 0.0133747 0.026 
-0.0292569 0.0153169 0.026 
-0.005507 -0.00131084 0.026 
-0.0723136 0.022 -0.00290176 
-0.0229809 0.0173724 -0.026 
0.0831634 -0.022 -0.00646092 
0.00546619 0.022 -0.00398191 
0.0593545 0.022 -0.00675703 
-0.0541872 -0.022 0.0173119 
-0.0301656 -0.022 -0.0134858 
-0.0260406 -0.022 0.0204281 
0.101293 -0.022 -0.0136412 
0.04461 0.022 -0.0194371 
-0.00295224 -0.0074434 0.026 
-0.0789276 0.0119493 0.026 
-0.0343732 -0.022 0.0091069 
0.0486564 -0.00125649 -0.026 
0.0279672 0.022 -0.0228566 
0.00480165 0.0132218 0.026 
-0.0623013 -0.0154309 -0.026 
-0.116 0.0147455 -0.01109 
-0.0477945 -0.022 0.00211333 
0.0249675 -0.00730049 -0.026 
0.116 0.01095 0.0218329 
-0.0480498 -0.0212637 0.026 
-0.0624741 0.022 -0.0237592 
-0.116 -0.00547466 -0.0164401 
0.0478064 -0.022 -0.00246082 
-0.0941545 -0.022 -0.0136685 
0.013736 0.022 0.00478051 
-0.113044 0.00130375 -0.026 
0.067267 0.022 0.0179156 
0.0458954 0.022 -0.00347152 
0.0473209 0.0136284 0.026 
-0.0485799 -0.022 0.0141162 
0.0131179 0.0139279 0.026 
-0.113551 -0.022 0.0226518 
0.0903333 0.022 0.0182883 
0.0346438 0.00589636 -0.026 
-0.0150816 -0.022 0.00070405 
0.0207002 -0.00279338 0.026 
-0.0412793 0.0114545 -0.026 
-0.0379166 -0.022 -0.00361787 
0.0122726 0.022 -0.0129862 
-0.116 0.00263177 0.0092487 
-0.0790148 0.0149823 -0.026 
0.106612 -0.022 -0.00533597 
0.0266247 -0.00703569 0.026 
-0.0680676 0.022 0.0199148 
0.0308699 -0.022 0.0237604 
-0.0755359 -0.022 -0.00693408 
0.100848 -0.0172063 -0.026 
-0.116 -0.0166415 0.00312299 
-0.116 0.0139488 0.0256544 
0.0872588 -0.0154595 -0.026 
-0.110707 -0.022 0.0206723 
-0.110454 -0.022 0.0061103 
0.0848502 -0.00182499 -0.026 
-0.0877855 -0.022 -0.0193922 
-0.11407 0.00628882 0.026 
0.00192396 0.00163355 -0.026 
-0.0417204 0.022 0.0155124 
-0.0550279 0.000867885 0.026 
-0.0692412 0.022 0.00886791 
0.103395 -0.0060658 0.026 
-0.110209 0.022 -0.0153774 
-0.0074185 -0.00196284 0.026 
0.116 -0.0136935 0.00185649 
0.0179564 -0.022 -0.00141871 
0.0141796 0.00982004 -0.026 
0.0821532 0.022 -0.0228356 
-0.0755782 0.022 0.014527 
0.0870629 0.022 0.00739419 
-0.113493 0.00631669 -0.026 
0.046372 -0.00840318 -0.026 
0.0174724 0.0215114 -0.026 
0.103115 -0.0187477 0.026 
-0.0949258 0.0141882 0.026 
-0.0075644 0.022 -0.00222674 
-0.053545 -0.00712384 0.026 
0.0712273 -0.022 0.00328088 
0.0179907 0.022 -0.0105255 
0.0194635 0.022 0.0193898 
-0.0396219 0.022 -0.001751 
-0.0263587 0.022 0.0241376 
-0.0428907 0.0136959 0.026 
0.0517438 -0.022 -0.00274394 
0.110596 -0.022 -0.00776334 
-0.00721227 0.0161639 -0.026 
-0.0407815 -0.022 0.0171386 
0.0962461 -0.0179695 -0.026 
-0.103553 -0.022 -0.0164873 
-0.0912249 -0.0126641 -0.026 
-0.0201606 -0.022 0.0231689 
0.0463783 0.0164692 -0.026 
0.108666 -0.022 0.0227618 
-0.0232155 -0.00324745 -0.026 
0.105446 -0.022 -0.0220638 
-0.071591 -0.022 -0.0122699 
0.115209 -0.0113256 0.026 
0.0715857 -0.022 -0.0016617 
0.0986985 0.00191326 -0.026 
-0.0117065 0.0161898 0.026 
0.0316372 0.00898875 0.026 
0.0899997 -0.022 -0.0192284 
-0.0229291 0.000603091 0.026 
0.0559376 0.00387861 -0.026 
0.115226 0.022 -0.0101685 
0.00322174 0.014575 -0.026 
-0.00529891 -0.022 0.00820079 
-0.0827549 7.17491e-06 -0.026 
-0.0501327 0.022 -0.0238178 
-0.116 -0.00984364 -0.00802008 
0.0321349 0.00804662 -0.026 
-0.116 0.0155085 -0.0200818 
0.0745492 -0.00817945 -0.026 
0.0945068 -0.022 -0.0241057 
-0.06282 0.000157356 0.026 
-0.116 0.0149685 -0.0122405 
-0.0738497 0.022 0.0154629 
-0.0504707 -0.0205414 -0.026 
-0.0612445 0.0213631 0.026 
-0.110886 0.022 -0.00385142 
0.0225725 -0.022 -0.0116574 
-0.0994389 0.022 0.00308563 
-0.0814706 0.022 -0.00576212 
0.113909 -0.022 0.0112031 
-0.0633819 -0.00870827 -0.026 
0.0413743 0.022 -0.00300653 
0.0241607 0.0006782 -0.026 
-0.057665 -0.022 -0.0110872 
0.0836485 -0.012738 -0.026 
0.0711667 -0.022 -0.0226422 
-0.0349838 -0.0114579 -0.026 
-0.0219406 -0.00204096 -0.026 
0.0699447 -0.00632363 -0.026 
-0.113021 -0.022 0.00167901 
-0.0123283 0.022 0.0166088 
-0.0595667 -0.022 -0.0180594 
0.116 0.015903 -0.0196016 
0.0197766 -0.00698743 0.026 
0.0528331 0.022 0.0103193 
0.0500486 -0.0130993 0.026 
-0.0440604 -0.022 -0.00982775 
0.115505 0.022 -0.00433096 
0.0247131 0.022 0.00200916 
-0.0115442 -0.0174439 0.026 
-0.116 0.0172815 0.00521 
-0.062322 0.00908113 -0.026 
-0.0978082 0.0154665 0.026 
-0.0143205 -0.022 -0.0148789 
-0.101538 -0.0175117 -0.026 
-0.0205285 0.022 0.0211754 
-0.0355824 -0.022 0.0175597 
0.0477951 -0.022 -0.00370402 
0.0216744 0.022 0.0237458 
-0.0461999 -0.022 0.00321139 
-0.116 -0.00527409 0.0209558 
0.0774978 -0.022 -0.00408531 
0.0853507 -0.00880906 -0.026 
0.00716389 -0.022 0.012394 
0.0212042 0.022 0.0170475 
-0.0303757 0.00222313 -0.026 
0.115801 -0.0018687 -0.026 
-0.0957767 0.022 0.00618644 
-0.0447334 0.022 0.0149267 
-0.0670372 -0.022 -0.00614876 
0.028901 0.022 0.00444851 
0.112661 -0.0142174 -0.026 
-0.083965 -0.022 -5.93755e-05 
0.116 -0.0133487 -0.00260469 
-0.116 -0.0159181 -0.00170457 
-0.0500887 0.00496027 0.026 
-0.0413021 0.0154122 -0.026 
-0.0321657 0.022 0.00845462 
0.116 -0.00146136 0.0123223 
-0.0648256 -0.022 -0.016605 
0.0193075 -0.00422671 0.026 
-0.0534426 0.016906 0.026 
-0.105502 0.022 0.00851297 
-0.00312931 0.0052896 -0.026 
0.0843607 -0.022 0.0022297 
-0.0509016 -0.022 0.0129853 
-0.00858199 0.022 -0.0204418 
-0.041185 0.022 0.0217305 
-0.116 -0.0147645 0.0199424 
-0.112301 -0.022 0.018828 
0.00776521 -0.00436028 -0.026 
-0.0738333 -0.0177207 -0.026 
-0.0535442 0.022 -0.0187316 
-0.0762117 0.022 -0.00615706 
-0.0135252 0.022 -0.0196582 
0.0398367 0.022 -0.00770935 
-0.0917998 -0.022 -0.0157827 
-0.0018853 0.0184272 -0.026 
0.112351 -0.0119868 0.026 
-0.0680548 0.022 0.0188276 
-0.112088 0.022 -0.00537779 
-0.10398 -0.022 0.00540908 
0.103438 -0.022 -0.0112489 
-0.0422288 -0.022 0.00585304 
0.0588439 -0.0149254 -0.026 
0.034274 0.022 -0.0144059 
0.0294404 -0.022 0.0195373 
0.10224 -1.30311e-05 -0.026 
0.0623792 -0.00755117 -0.026 
-0.106916 -0.022 -0.0170215 
-0.0298391 0.0207255 0.026 
-0.116 -0.00233407 -0.0121016 
0.0259373 -0.022 -0.0127279 
-0.0551556 -0.022 -0.0222914 
0.11308 -0.022 0.0203224 
0.111845 -0.0151121 -0.026 
-0.116 0.0138644 -0.00708474 
0.0615784 -0.0103762 0.026 
0.113234 0.020456 -0.026 
0.0342341 -0.0117886 -0.026 
-0.0473346 0.022 -0.0139931 
-0.0734884 0.0107819 -0.026 
0.0226457 0.00645377 0.026 
-0.0599213 0.0189807 0.026 
-0.0466412 0.00027801 0.026 
-0.0384168 -0.022 -0.000673018 
0.0946863 0.022 -0.00429772 
-0.030144 0.0147167 0.026 
-0.0647476 0.022 0.0233281 
0.0762678 0.016185 0.026 
0.0788343 0.00042388 -0.026 
0.113211 -0.00146552 -0.026 
0.110421 0.022 -0.00402092 
0.0962477 0.016097 -0.026 
-0.0668567 0.022 -0.00588655 
-0.0445269 -0.022 -0.0182028 
-0.0258479 0.0082896 -0.026 
-0.103511 0.022 -0.0192977 
-0.0964361 0.022 -0.023696 
0.116 -0.0201551 -0.0159475 
0.0914137 -0.00552622 0.026 
-0.00236065 -0.022 -0.00616784 
0.112321 -0.022 -0.0258235 
0.116 -0.00538648 -0.00121724 
0.0112329 0.022 0.0255902 
-0.0286713 -0.022 -0.0226652 
-0.101399 0.0105622 -0.026 
0.0790303 0.022 -0.0255326 
0.0907064 -0.00196155 0.026 
-0.0127034 -0.022 0.0231781 
-0.102555 0.00564335 -0.026 
-0.11458 0.000191545 0.026 
-0.114043 0.022 -0.0137209 
-0.106073 0.0138112 -0.026 
0.0652466 0.000693768 0.026 
-0.0071416 0.022 0.00656319 
-0.106842 0.00698576 -0.026 
-0.0580031 0.022 -0.0109144 
-0.0573779 0.022 -0.0182246 
0.0157083 -0.022 0.0215853 
-0.0726807 -0.022 -0.0171917 
-0.0719349 -0.022 0.017201 
-0.0394071 -0.00778687 0.026 
0.0138808 0.022 0.00342754 
-0.106645 -0.00279127 -0.026 
0.0947895 0.00178257 -0.026 
0.0021342 0.022 -0.0105288 
-0.0956879 -0.022 0.0100475 
0.0511798 -0.022 0.0148604 
-0.0442131 0.022 0.00620661 
-0.113838 -0.022 0.0127715 
0.0675914 0.0145166 -0.026 
0.104227 -0.0133637 -0.026 
0.106424 0.022 0.000551546 
0.0982075 0.0141452 -0.026 
-0.0283589 0.022 -0.00358029 
0.0296492 -0.022 -0.000705101 
-0.113372 -0.022 -0.00371336 
0.0343694 -0.022 0.0125964 
-0.0449486 0.022 -0.00434043 
-0.107489 -0.022 0.00166104 
-0.0939242 6.38026e-05 -0.026 
0.107817 -0.0143606 -0.026 
0.0592388 -0.00948112 0.026 
-0.0839605 -0.00244216 -0.026 
0.0137827 0.022 -0.0182889 
0.065011 0.022 -0.0186069 
0.109226 0.022 0.0137542 
-0.0913619 0.022 -0.0248824 
0.111469 0.00422733 0.026 
0.116 -0.00886239 -0.0187693 
0.0825108 -0.022 0.00456623 
0.111251 -0.022 -0.000490462 
-0.108317 0.022 -0.00698931 
0.0324356 -0.00674854 0.026 
-0.0414202 0.0138733 -0.026 
0.0517295 -0.022 -0.018091 
-0.00740845 0.022 -0.020886 
-0.080912 0.0117003 0.026 
-0.0701696 0.022 0.0246658 
0.00657324 0.0129102 -0.026 
0.0114641 -0.0180033 0.026 
0.00934501 -0.022 -0.00261456 
-0.116 0.00183397 0.0250639 
0.0171852 -0.022 0.00561512 
0.0459815 -0.0175847 0.026 
-0.0655796 0.022 -0.0187571 
0.0308924 0.022 -0.0122274 
0.0488103 -0.022 -0.0114293 
0.0886746 0.0131971 -0.026 
-0.0416792 0.022 -0.00354194 
-0.087469 -0.00485728 0.026 
0.00990026 -0.022 0.00821607 
-0.0409795 0.000801457 0.026 
0.00377252 -0.022 -0.0236172 
0.0582475 -0.022 -0.0202584 
-0.0592608 -0.022 0.0150726 
-0.0466062 0.00159548 -0.026 
0.0542799 0.0203533 -0.026 
-0.0365234 0.00277124 -0.026 
-0.0583394 -0.0173906 0.026 
0.107188 -0.022 -0.0162935 
-0.0165546 -0.0182951 0.026 
-0.0131442 -0.0111528 -0.026 
0.0924967 -0.00244449 0.026 
0.0817316 -0.00272477 -0.026 
-0.0569187 -0.022 -0.0240457 
0.0352331 -0.022 0.000638528 
-0.114816 -0.022 0.0214451 
-0.0109254 -0.0195354 -0.026 
-0.0509972 0.00386205 0.026 
0.0381142 -0.022 0.00387818 
0.0863354 0.022 -0.0145374 
0.0827675 0.0128594 0.026 
0.0137864 -0.0208964 -0.026 
0.0798804 -0.022 0.0211831 
0.116 0.00867111 -0.00596196 
0.0623846 0.0132873 -0.026 
0.0566257 -0.022 -0.0191799 
0.111095 0.0111689 0.026 
0.0770148 -0.0167309 0.026 
-0.116 0.0127219 0.00176505 
0.101705 0.0182341 -0.026 
-0.046623 0.022 0.00191936 
-0.116 -0.0167537 0.0258889 
-0.0579926 0.0104258 -0.026 
-0.0284578 -0.0171211 0.026 
-0.0374638 -0.00406354 -0.026 
0.108206 -0.022 -0.0129667 
-0.0514755 -0.022 -0.0247101 
-0.10543 -0.022 -0.000361761 
-0.0816295 -0.0216087 -0.026 
-0.0105437 -0.0170233 0.026 
0.0466157 -0.022 -0.0203666 
-0.0736985 -0.0208397 -0.026 
0.0105633 0.0150326 0.026 
-0.0339398 0.022 -0.00456149 
0.0904725 0.022 -0.0193551 
-0.091569 -0.0207287 0.026 
-0.103511 0.022 0.0176855 
-0.0494194 -0.0110504 0.026 
0.0989608 0.022 -0.0238983 
-0.0679531 0.022 -0.00812674 
-0.0466022 0.000249486 -0.026 
0.0942967 -0.020163 -0.026 
-0.056731 0.0163242 0.026 
0.0908115 -0.022 -0.0166156 
0.100404 0.022 0.00998434 
0.0492269 -0.022 0.0110098 
0.111221 -0.022 -0.00495623 
0.024329 -0.022 -0.00887032 
0.0534007 0.022 0.013828 
0.0321056 0.022 0.024069 
-0.0527472 -0.00997247 -0.026 
0.0713403 -0.0121564 -0.026 
-0.057282 -0.00370747 0.026 
0.0995056 0.022 0.00399453 
-0.112952 0.00768555 0.026 
0.00513167 -0.022 0.0139516 
0.0948765 -0.022 -0.025263 
-0.0381345 0.0033583 -0.026 
0.0125422 0.022 0.00599844 
-0.116 0.0183142 0.0188802 
0.0154192 -0.00658311 0.026 
0.00516497 0.022 -0.0202514 
0.0122199 0.022 0.0155812 
-0.043468 0.0151115 -0.026 
0.0992793 0.0210775 0.026 
-0.0139937 -0.0199192 -0.026 
-0.116 0.0168862 -0.00689701 
0.0710458 -0.022 -0.0131231 
-0.0462631 0.022 0.0112192 
0.0820667 -0.022 -0.0224202 
-0.0877962 0.0187083 -0.026 
-0.0897402 -0.022 0.0133025 
-0.0523607 -0.022 0.0050673 
-0.00653212 -0.0186135 -0.026 
-0.038439 -0.0197503 -0.026 
0.0512895 0.00854314 0.026 
-0.0241579 -0.022 -0.00809843 
-0.0832356 0.00326192 0.026 
0.0491551 -0.022 -0.023123 
-0.0434242 0.0127463 0.026 
0.014885 0.00222179 -0.026 
-0.0860228 0.0183304 0.026 
-0.0882745 0.022 0.00861096 
0.094884 0.00993316 -0.026 
-0.00940384 0.022 -0.0211699 
0.0359636 0.0053694 -0.026 
0.110737 0.000409208 -0.026 
0.0263326 0.022 0.00413198 
-0.0394526 0.022 0.00866464 
-0.00278454 -0.0153561 0.026 
-0.0776886 -0.022 -0.024115 
-0.0745378 0.022 -0.000114195 
0.100962 -0.0146252 -0.026 
-0.00571075 0.022 -0.0191419 
-0.0549362 0.022 0.0133098 
0.0258711 -0.022 0.00897591 
0.105152 -0.022 0.0197428 
0.042457 -0.0126123 0.026 
-0.0274249 0.022 -0.0124017 
0.0754793 0.00321049 -0.026 
0.112913 0.00201094 -0.026 
-0.0708189 0.00415226 -0.026 
-0.0503618 -0.022 -0.0209174 
0.048773 0.0215143 0.026 
0.0302218 -0.022 -0.00559069 
0.058617 0.022 0.00688327 
-0.0340445 -0.0158817 0.026 
0.0777339 -0.0118149 -0.026 
0.116 0.0120089 0.0194591 
0.027317 0.0184086 0.026 
-0.0901526 -0.00631303 -0.026 
-0.00528483 0.017498 0.026 
-0.107077 -0.022 -0.00931125 
-0.00668283 -0.022 -0.0190568 
-0.059848 -0.022 0.017753 
0.0983389 -0.022 0.00327069 
0.0471324 0.022 -0.00606868 
-0.116 -0.0176253 -0.00988354 
-0.0391389 -0.022 -0.0140912 
-0.0368648 -0.0106721 -0.026 
-0.0297354 -0.022 -0.0163617 
-0.0197364 -0.022 0.00616905 
-0.116 0.00411967 -0.00978872 
0.0637926 -0.0113115 0.026 
-0.0717809 0.022 -0.0176725 
0.0448323 0.0206472 0.026 
0.0767095 0.0102157 0.026 
0.0238674 0.022 -0.0201424 
-0.116 -0.00892811 -0.0231261 
-0.114613 -0.022 -0.0165777 
0.0189072 0.00730122 0.026 
0.0122815 -0.00806275 -0.026 
-0.0926885 0.00408413 -0.026 
-0.0643042 0.022 0.012074 
-0.0383854 -0.00202138 -0.026 
-0.101339 0.022 -0.0138622 
0.0863606 0.0212518 -0.026 
0.0399356 -0.0166983 -0.026 
-0.0702385 -0.0126239 -0.026 
0.0723548 0.022 7.0231e-05 
0.0355644 0.00643499 -0.026 
0.0567203 0.022 -0.0196133 
0.00145832 -0.00992174 0.026 
0.0200778 0.022 0.0159868 
-0.0465954 -0.022 -0.000397807 
-0.0820922 0.00862122 -0.026 
0.0108638 -0.010285 0.026 
-0.0611756 0.022 -0.00266883 
0.0343093 -0.022 0.0105779 
0.0603544 0.022 0.0217336 
0.0656856 -0.00916203 -0.026 
-0.116 0.00505938 0.0240422 
-0.116 -0.0161245 0.022127 
-0.0345711 -0.022 -0.023039 
-0.00838126 -0.00859428 -0.026 
-0.0485691 0.0114547 0.026 
-0.0513488 0.00695745 0.026 
0.024391 -0.00639389 -0.026 
0.0487202 -0.022 0.00687156 
-0.00820495 0.00147052 0.026 
0.102162 -0.0147388 -0.026 
0.0359111 -0.0216914 -0.026 
-0.042508 -0.022 -0.00734507 
-0.060679 0.022 -0.00874943 
0.104585 0.022 0.00402954 
-0.00304543 -0.022 -0.00302726 
0.00484366 -0.022 -0.0219881 
0.0999929 0.022 0.0161576 
0.0166742 -0.0122557 0.026 
0.0523141 -0.022 0.0192068 
-0.0172254 0.00889292 0.026 
-0.111821 -0.022 0.00159716 
-0.0621092 0.0117766 -0.026 
-0.0954992 0.00686531 -0.026 
0.0488652 -0.00812231 -0.026 
0.0826772 0.022 0.00855282 
-0.0527838 -0.0211239 -0.026 
-0.0894229 -0.022 -0.010615 
-0.0914951 0.00278781 0.026 
0.0166066 0.0176483 -0.026 
-0.00809487 -0.022 0.00422619 
-0.069077 -0.0157136 0.026 
-0.0825647 -0.022 -0.0251039 
0.0539731 0.022 -0.00921508 
-0.0600039 0.013878 0.026 
-0.0831867 0.022 0.0158939 
-0.092638 -0.0042416 -0.026 
0.033626 0.00633823 -0.026 
-0.106976 0.022 0.0214792 
-0.0741128 -0.00119242 -0.026 
-0.0152379 0.0027252 -0.026 
-0.101911 0.022 0.0110983 
-0.0500634 -0.0160834 0.026 
0.0867563 0.022 -0.00733206 
0.0753844 -0.022 -0.000431228 
-0.0502625 -0.022 -0.00703715 
0.00151442 -0.0108353 -0.026 
-0.0993738 0.00899181 -0.026 
-0.0308731 0.022 0.00591096 
-0.0407643 0.022 -0.0107784 
0.00320017 0.022 -0.0248231 
0.116 -0.00412406 0.0244991 
0.0355089 0.0125698 -0.026 
-0.0768763 -0.022 -0.00440564 
-0.102653 -0.022 -0.0203749 
0.0243176 -0.022 0.0252369 
-0.0705725 0.00255338 0.026 
-0.0152422 0.00964422 0.026 
-0.0188437 0.022 5.38994e-05 
-0.111413 0.0156934 -0.026 
0.00634188 -0.00841088 0.026 
0.114165 0.0114618 0.026 
0.043821 0.0190405 -0.026 
-0.0762999 -0.022 0.0213418 
-0.0527348 0.00443927 0.026 
0.0667162 0.0211419 0.026 
0.0301992 0.022 -0.0171624 
0.00267997 0.022 0.0152402 
-0.0184492 -0.00436147 -0.026 
-0.0710752 -0.022 0.0145036 
0.00054748 0.0075266 -0.026 
-0.0498045 -0.022 -0.000613363 
-0.116 0.00032112 0.0149753 
0.112159 0.0104076 0.026 
0.0153285 0.022 -0.00103109 
-0.0331256 -0.00713627 -0.026 
0.0466649 0.022 -0.0231877 
-0.104601 0.022 -0.0251543 
0.0154955 0.0109996 0.026 
-0.00547444 -0.022 0.0205265 
-0.0382863 -0.022 -0.00489834 
-0.0560004 0.022 0.0218189 
0.0402243 0.022 -0.0129798 
